ply
format ascii 1.0
comment Created by Open3D
element vertex 790
property double x
property double y
property double z
property double nx
property double ny
property double nz
end_header
-0.0763866 0.0824539 -0.0119601 -0.661714 -0.24226 -0.691351
-0.0775942 0.079409 -0.00876013 -0.704929 -0.368308 -0.588782
-0.0736727 0.0761544 -0.0110472 -0.598298 -0.487023 -0.629019
-0.0598942 0.0616193 -0.00362772 -0.518497 -0.68129 -0.495946
-0.060155 0.0633233 -0.00562157 -0.425814 -0.704216 -0.542493
-0.05842 0.062643 -0.00539013 -0.487028 -0.658992 -0.549686
0.0103443 0.100309 -0.0220316 0.152 0.517362 -0.841294
0.0136839 0.099085 -0.0229011 0.17173 0.499225 -0.848505
-0.0452859 0.07029 -0.0165459 -0.143243 -0.362298 -0.9147
-0.0456558 0.0672301 -0.0152905 -0.216949 -0.335564 -0.909417
-0.058437 0.0648838 -0.00812725 -0.352724 -0.670035 -0.63255
-0.0564893 0.0644489 -0.00827151 -0.389867 -0.612629 -0.664201
-0.0357122 0.0347691 0.0201015 -0.249196 -0.883166 -0.191864
-0.034314 0.0341995 0.020462 -0.112801 -0.949872 -0.0389599
-0.0728994 0.0799593 -0.0140193 -0.563141 -0.325642 -0.737156
-0.0703533 0.0786737 -0.015333 -0.483388 -0.350576 -0.785168
-0.0710171 0.0760904 -0.0133471 -0.513593 -0.465671 -0.706828
-0.0883159 0.136052 0.0398301 -0.835033 0.339035 0.384617
-0.0882209 0.133406 0.0417926 -0.828896 0.294164 0.426565
-0.087677 0.139872 0.040154 -0.796026 0.401731 0.439143
-0.0892634 0.13451 0.036892 -0.89332 0.315619 0.2603
-0.0901536 0.132098 0.0347054 -0.947981 0.277375 0.153645
-0.0537353 0.140107 -0.000917128 0.679784 0.111285 -0.682629
-0.0567061 0.138653 -0.00447294 0.590052 0.145771 -0.783474
-0.0481798 0.0455717 -0.00978176 -0.443369 0.411191 -0.791937
-0.0491291 0.0430965 -0.0102741 -0.52327 0.407119 -0.741725
-0.0623074 0.110165 -0.0153109 -0.382319 0.373061 -0.834421
-0.0626572 0.109294 -0.0154407 -0.397053 0.355899 -0.833599
-0.0568407 0.0369351 -0.0102506 -0.277391 -0.158318 -0.82459
-0.0581803 0.0344683 -0.0105334 -0.278918 -0.471905 -0.785047
0.0258825 0.0725619 -0.0246861 0.577751 -0.0340317 -0.808797
0.024117 0.0720543 -0.0259423 0.541788 -0.0202113 -0.836641
-0.0455316 0.0813032 -0.0203415 -0.0404137 -0.324389 -0.941022
-0.0434 0.0836215 -0.0210934 -0.104812 -0.283787 -0.952328
-0.010746 0.168369 -0.0237902 0.341278 -0.658359 -0.594423
-0.012535 0.170498 -0.024985 -0.0212347 -0.542597 -0.803667
-0.00988725 0.168719 -0.0244896 0.417092 -0.659284 -0.580141
-0.0103201 0.105067 0.0436173 -0.10803 0.445087 0.874402
-0.0738776 0.0744603 -0.00967994 -0.588574 -0.55374 -0.577249
-0.0733841 0.0711732 -0.0062055 -0.567778 -0.653208 -0.488342
-0.072102 0.0732876 -0.00949905 -0.555 -0.574071 -0.59002
-0.0049568 0.0361573 -0.0248031 0.114898 -0.496314 -0.83189
-0.00897527 0.0363148 -0.0252428 0.136281 -0.459465 -0.852791
-0.0525195 0.096497 -0.022255 -0.144559 0.143089 -0.972727
-0.048514 0.0968551 -0.0222425 -0.114365 0.135469 -0.98023
-0.0493862 0.0920276 -0.0220807 -0.0612817 0.0244448 -0.993125
-0.0486625 0.0941417 -0.0221494 -0.0815678 0.0716895 -0.988212
-0.0426063 0.108982 -0.018986 -0.051507 0.370928 -0.926658
-0.0465683 0.103997 -0.0207594 -0.103544 0.288329 -0.9458
-0.0450219 0.104468 -0.0208001 -0.0907952 0.298629 -0.944699
-0.0493917 0.102469 -0.0210178 -0.130249 0.259571 -0.950701
-0.0478384 0.103083 -0.0209882 -0.116719 0.272023 -0.948983
-0.0397116 0.160095 -0.0119985 -0.354425 -0.246391 -0.900302
-0.0466206 0.154593 -0.00674235 -0.331815 -0.292541 -0.86333
-0.0475588 0.155266 -0.00674508 -0.38967 -0.215941 -0.881943
-0.042006 0.154883 -0.00854478 -0.201677 -0.459264 -0.831682
0.00967559 0.103212 -0.020526 0.143423 0.428432 -0.885118
0.00594375 0.101825 -0.0215341 0.151607 0.421088 -0.879978
0.00645112 0.101861 -0.0214212 0.150239 0.431124 -0.876666
-0.0910314 0.114393 0.0367354 -0.760582 -0.578795 0.0388004
-0.0694493 0.0693524 -0.00673778 -0.495671 -0.676181 -0.538955
-0.0722799 0.0746665 -0.0110493 -0.561676 -0.537684 -0.623795
0.0234247 0.0492679 -0.0213083 0.589207 -0.375028 -0.704659
0.0218648 0.0657735 -0.0266096 0.500328 -0.0376445 -0.863043
0.023513 0.0635414 -0.024352 0.533407 -0.0441422 -0.83896
0.0244343 0.0670273 -0.0243103 0.565321 -0.0675994 -0.819437
-0.0443455 0.0591815 -0.0124124 -0.153822 -0.237735 -0.945323
-0.0416609 0.0619267 -0.0130148 0.0119034 -0.334309 -0.939779
0.0412689 0.103138 0.00116495 0.876796 0.398986 -0.246461
0.038105 0.105268 -0.00300393 0.818342 0.427616 -0.344568
0.0379884 0.104715 -0.00387365 0.806643 0.40975 -0.378804
0.038128 0.105776 -0.00237887 0.826694 0.443124 -0.318423
0.0358451 0.104235 -0.00887907 0.73797 0.371515 -0.538533
-0.0470556 0.158547 -0.007379 -0.480697 -0.0607272 -0.848767
-0.0421945 0.160236 -0.0104668 -0.416941 -0.148968 -0.872663
-0.0427727 0.160683 -0.0101134 -0.443423 -0.104881 -0.858781
-0.0407518 0.161788 -0.0114057 -0.428668 -0.12068 -0.86185
-0.0402396 0.159925 -0.0116873 -0.362439 -0.235755 -0.899134
-0.0467874 0.101076 -0.0215437 -0.1169 0.233997 -0.961489
-0.0418999 0.105496 -0.0204567 -0.0627595 0.314178 -0.94411
-0.0417426 0.104502 -0.0206403 -0.0651419 0.294138 -0.950218
-0.0456142 0.101326 -0.0214389 -0.106849 0.237094 -0.962077
-0.0697415 0.130186 -0.00877715 -0.0785953 0.0321951 -0.989543
-0.070688 0.135347 -0.00786552 -0.0859555 -0.0138206 -0.978706
-0.0694269 0.12944 -0.0089498 -0.0713438 0.038699 -0.992479
-0.0691864 0.131248 -0.00876189 -0.0540081 0.0220983 -0.993088
0.0154806 0.0665779 -0.03005 0.337644 -0.125441 -0.931539
0.0219266 0.0695009 -0.0273759 0.511885 -0.0596894 -0.855863
0.0185715 0.0666304 -0.0285487 0.417851 -0.0825454 -0.898345
0.0193858 0.0852887 -0.0274439 0.492136 0.195589 -0.846166
0.0248205 0.079705 -0.0249287 0.53517 0.106266 -0.836147
0.0197358 0.0855053 -0.027228 0.493985 0.195063 -0.845607
-0.0449642 0.0775405 -0.0190893 0.0029054 -0.364467 -0.929996
-0.0398114 0.0739172 -0.01777 -0.0784844 -0.347637 -0.933102
0.0206871 0.0557316 -0.0267881 0.484418 -0.183177 -0.84101
0.0227459 0.0562397 -0.0262197 0.552407 -0.162668 -0.813274
0.0183367 0.0566418 -0.0277032 0.415452 -0.134172 -0.889301
0.0183705 0.0569313 -0.0276677 0.414398 -0.125201 -0.891287
0.0210803 0.0496066 -0.0229388 0.490075 -0.43957 -0.745238
0.0215092 0.0505798 -0.0236529 0.459369 -0.461188 -0.753817
0.0176807 0.0703932 -0.0290532 0.447078 -0.0582881 -0.886419
0.0184813 0.0706746 -0.0287215 0.467429 -0.0511665 -0.877532
0.0161912 0.0678718 -0.0297625 0.3712 -0.107363 -0.917404
0.0202799 0.0713637 -0.0279338 0.506885 -0.0340829 -0.859846
0.0140674 0.074941 -0.0302703 0.463934 0.0139239 -0.885178
0.0175864 0.0734878 -0.0288618 0.48843 -0.0028942 -0.870618
0.0210983 0.0707748 -0.0276433 0.51251 -0.0425351 -0.856552
0.0192969 0.0806323 -0.0276667 0.49663 0.126134 -0.85282
0.0163203 0.0828019 -0.0290157 0.47346 0.155157 -0.861236
0.0194007 0.0796895 -0.0276349 0.498224 0.110274 -0.854202
0.0231845 0.0775941 -0.0259084 0.527075 0.0847261 -0.842225
0.0180629 0.0817204 -0.0282226 0.486854 0.141396 -0.855944
0.0212478 0.078902 -0.0267879 0.512095 0.101832 -0.8479
0.0172999 0.0862304 -0.0284986 0.477331 0.216531 -0.850463
0.0295933 0.0778217 -0.0214336 0.625039 -0.022696 -0.772532
0.0308026 0.0827756 -0.020169 0.599904 0.0249489 -0.794805
0.0306527 0.0833415 -0.0201933 0.594094 0.0353276 -0.799238
-0.0331823 0.0342798 0.0230486 0.222652 -0.913464 0.0969501
-0.063175 0.134842 -0.00759436 0.198969 0.0892935 -0.957754
-0.0673288 0.134338 -0.00835901 0.031164 0.0135564 -0.989393
-0.0677768 0.132394 -0.0086098 0.00477862 0.0268699 -0.990818
-0.0667045 0.130784 -0.00856744 0.0404614 0.066202 -0.980822
0.0188227 0.0466946 -0.0222167 0.519272 -0.390381 -0.742868
0.0178776 0.0448064 -0.0228605 0.563645 -0.328327 -0.721781
0.0167003 0.052774 -0.0264034 0.394624 -0.245541 -0.864364
0.0187347 0.0480171 -0.022687 0.491744 -0.382435 -0.765166
0.0157269 0.048852 -0.0250668 0.375153 -0.346256 -0.840689
0.0119162 0.0816788 -0.0314082 0.415868 0.122362 -0.895626
0.0109906 0.0807978 -0.031915 0.404977 0.104462 -0.903786
0.0117428 0.0800494 -0.0314815 0.419195 0.0941648 -0.897971
0.0139561 0.0840895 -0.0302981 0.438154 0.169769 -0.877378
0.0474158 0.0560581 -0.00579818 0.25914 0.0597616 -0.947632
0.0515523 0.0603431 -0.00337349 0.36781 0.226136 -0.838388
-0.0468847 0.0753098 -0.0175708 -0.0805925 -0.406272 -0.90328
-0.0449754 0.0753846 -0.0184994 -0.0310211 -0.362726 -0.928415
-0.0507441 0.0365226 -0.0121331 -0.384298 -0.0185517 -0.810924
0.0154991 0.0423979 -0.0229241 0.437776 -0.337904 -0.796204
0.0138083 0.0409834 -0.0230203 0.340838 -0.350662 -0.852791
0.0168429 0.042798 -0.0225396 0.516148 -0.324488 -0.751539
0.0135692 0.0561769 -0.029183 0.330721 -0.17775 -0.925014
0.0113138 0.0602609 -0.0293358 0.422754 -0.161438 -0.882805
0.0186268 0.0590871 -0.0273985 0.409971 -0.0603629 -0.904068
0.0111601 0.0582879 -0.0296152 0.375744 -0.189047 -0.901492
-0.0643982 0.116735 -0.0101756 -0.26395 0.339085 -0.896596
-0.0602781 0.120519 -0.00912141 -0.101939 0.399926 -0.909776
-0.0416138 0.0682081 -0.0159275 -0.0406669 -0.341962 -0.937368
-0.0406972 0.0661983 -0.0147264 -0.0198627 -0.346944 -0.935921
-0.00943654 0.175912 -0.0262737 0.908596 0.161656 -0.106882
-0.00907388 0.173015 -0.0243632 0.932038 0.102245 0.0844389
0.00941901 0.060573 -0.0299862 0.412478 -0.193579 -0.883118
0.0147471 0.0641151 -0.029512 0.372295 -0.123145 -0.914267
0.0115879 0.0637276 -0.0303644 0.365083 -0.174515 -0.910037
0.0124992 0.0614247 -0.0293132 0.410921 -0.146154 -0.891182
0.0158016 0.0610035 -0.0281466 0.433434 -0.0878225 -0.888734
0.0124284 0.0745592 -0.0309786 0.439583 -0.0180248 -0.893404
0.0124283 0.0717998 -0.0311249 0.39498 -0.0817067 -0.908032
-0.0375907 0.109311 -0.0191653 -0.0376521 0.4276 -0.896113
-0.0382425 0.109847 -0.0189517 -0.0246746 0.435064 -0.892072
-0.0505886 0.153363 -0.00478469 -0.378131 -0.190086 -0.884864
-0.0518648 0.14692 -0.00199884 0.108391 -0.342239 -0.900593
-0.0474344 0.148715 -0.00396805 0.0260262 -0.512488 -0.83109
0.0123668 0.086387 -0.0306807 0.383974 0.203236 -0.892331
0.0153806 0.085759 -0.0294886 0.452418 0.202609 -0.864835
0.0125932 0.0863536 -0.0305891 0.388972 0.203422 -0.890271
0.0123896 0.0864077 -0.0306678 0.384228 0.20366 -0.892133
0.0138408 0.0884071 -0.0299065 0.437987 0.269389 -0.851701
0.0118392 0.0890795 -0.0307149 0.404905 0.283298 -0.860597
-0.085331 0.0815087 0.0208648 -0.886282 -0.387648 0.220054
-0.0828838 0.0792879 0.0236361 -0.83622 -0.471908 0.241507
-0.0853784 0.0829044 0.0223501 -0.891184 -0.351002 0.267557
0.0107605 0.0535067 -0.0294117 0.182336 -0.230112 -0.946893
0.0109512 0.0506884 -0.028147 0.198641 -0.299517 -0.922939
0.00756657 0.0644396 -0.0321164 0.3277 -0.183087 -0.92585
0.00797555 0.0630115 -0.0313585 0.359131 -0.205205 -0.907592
0.00990596 0.0664578 -0.0313558 0.271319 -0.175972 -0.944349
0.0108293 0.0694467 -0.0319048 0.345153 -0.176511 -0.920962
-0.0697031 0.0394341 -0.000707223 -0.788228 0.405943 -0.387187
-0.0517773 0.0482687 -0.00824046 -0.443 0.201213 -0.841022
-0.0492203 0.050122 -0.00914718 -0.340101 0.0977011 -0.884657
-0.0594009 0.0810428 -0.0200627 -0.229667 -0.200483 -0.943034
-0.0561659 0.0796195 -0.0206692 -0.10688 -0.303512 -0.939516
-0.0826677 0.117631 -0.00290351 -0.657428 -0.104951 -0.721215
-0.0833726 0.119188 -0.00316452 -0.641441 -0.133284 -0.730155
-0.0829277 0.115603 -0.00180713 -0.729867 -0.0540086 -0.675509
-0.0795616 0.115858 -0.00408429 -0.574771 -0.100089 -0.777596
-0.0818306 0.116556 -0.00294769 -0.653151 -0.0895349 -0.72515
0.00729382 0.0567892 -0.0307436 0.229566 -0.231818 -0.931412
0.00925953 0.0732707 -0.0330061 0.376502 -0.113672 -0.915273
0.00846428 0.0772782 -0.0334926 0.368917 -0.00057383 -0.92397
0.00927823 0.0757267 -0.033082 0.383595 -0.0365545 -0.917199
-0.0435553 0.0685131 -0.016266 -0.0918323 -0.336829 -0.931425
-0.0450166 0.0652053 -0.0142659 -0.184784 -0.337852 -0.910939
-0.0398575 0.0351827 0.0409583 -0.191239 -0.806318 0.490842
-0.0426361 0.0345587 0.0330338 -0.0287448 -0.992596 0.102186
0.0117091 0.111168 -0.0186589 0.260118 0.34657 -0.897621
0.0119421 0.110232 -0.0187868 0.239974 0.354684 -0.899184
0.00302658 0.104292 -0.0217603 0.162086 0.233177 -0.956998
0.0102316 0.104892 -0.0201426 0.144113 0.350629 -0.920955
0.00327779 0.105157 -0.0215709 0.159904 0.232445 -0.958196
0.0103631 0.049181 -0.027429 0.192551 -0.339402 -0.910748
0.0084071 0.0501094 -0.0281309 0.133557 -0.32405 -0.926487
0.0127336 0.046922 -0.0259299 0.273345 -0.386266 -0.880028
-0.0451141 0.0348594 0.0401018 -0.0624685 -0.888428 0.368191
-0.0438895 0.0348983 0.0390117 -0.0837239 -0.880627 0.367337
-0.0438474 0.0346518 0.0336087 -0.0306454 -0.958254 0.183809
-0.0459746 0.0346247 0.0363788 -0.00251169 -0.959081 0.215264
-0.0457226 0.0349416 0.0428408 -0.0739452 -0.860402 0.443766
-0.0454721 0.0348376 0.040195 -0.0539947 -0.893981 0.36073
-0.04743 0.0898513 -0.0220691 -0.074584 -0.0508449 -0.993838
-0.0437604 0.0946131 -0.0221632 -0.0662397 0.057336 -0.993557
0.0097672 0.0423749 -0.0241776 0.204003 -0.405152 -0.886808
0.0105337 0.0457849 -0.0255382 0.221654 -0.411404 -0.880287
0.00593115 0.0498056 -0.0282884 0.172132 -0.360309 -0.911175
0.0054408 0.0500189 -0.0284948 0.194132 -0.363769 -0.90766
0.00922798 0.0675676 -0.0316328 0.269296 -0.187979 -0.942204
0.00700502 0.0785803 -0.0338641 0.352246 0.0138032 -0.928588
-0.0517195 0.154964 -0.00426191 -0.506503 -0.0528092 -0.835063
-0.051222 0.159 -0.00453646 -0.636767 0.165973 -0.744975
-0.0488097 0.158619 -0.0062303 -0.533113 0.0173338 -0.817976
0.0116879 0.0378011 -0.0224171 0.276395 -0.459601 -0.80684
0.00973631 0.0358294 -0.022163 0.272249 -0.601515 -0.691722
0.00720276 0.0395333 -0.0236491 0.222222 -0.371796 -0.898968
0.00807367 0.0378624 -0.0235875 0.220222 -0.377882 -0.897858
0.00614965 0.0387142 -0.0238812 0.206599 -0.379802 -0.899811
-0.00199335 0.0432326 -0.0254297 0.132262 -0.403257 -0.904676
0.00194646 0.0418895 -0.024614 0.174827 -0.386226 -0.902667
0.00750181 0.0421333 -0.024254 0.191031 -0.402402 -0.891126
0.00484987 0.0438526 -0.0251045 0.145667 -0.429195 -0.889157
0.0070175 0.0537952 -0.0302827 0.147911 -0.25715 -0.949033
-0.0482216 0.0600575 -0.0117385 -0.378386 -0.224729 -0.879612
-0.045126 0.0581657 -0.0120404 -0.201249 -0.206632 -0.942492
-0.0458367 0.0542688 -0.0104402 -0.244847 -0.116809 -0.938121
-0.0444987 0.0560438 -0.011487 -0.166529 -0.165242 -0.959274
0.00268972 0.0490928 -0.0296157 0.228672 -0.409241 -0.881413
0.00268917 0.0478633 -0.029041 0.214477 -0.434515 -0.872902
0.0071162 0.0717057 -0.0334778 0.332588 -0.150188 -0.92838
0.00678501 0.0830707 -0.0334133 0.32946 0.128535 -0.932385
0.00742246 0.0825439 -0.0333135 0.333213 0.122042 -0.931595
-0.0756725 0.141246 -0.00621882 -0.607042 -0.0877443 -0.751637
-0.0761176 0.137209 -0.00620577 -0.472952 -0.0314968 -0.813484
-0.0736379 0.141639 -0.00686291 -0.471859 -0.245087 -0.765877
0.000877286 0.101952 -0.0226608 0.149285 0.397965 -0.875281
0.00338166 0.10801 -0.0208255 0.143495 0.276482 -0.94566
0.00231323 0.10856 -0.0207107 0.134872 0.309701 -0.934071
0.00586878 0.109393 -0.020315 0.14441 0.260421 -0.953905
-0.0588078 0.0887972 -0.0205166 -0.332759 0.0278906 -0.939269
-0.059546 0.0869605 -0.0202386 -0.327366 -0.01644 -0.939131
-0.0607655 0.0940663 -0.0188638 -0.356927 0.0932905 -0.92399
0.00355142 0.0557932 -0.0311423 0.286332 -0.309602 -0.904535
0.00602196 0.0626149 -0.031978 0.347929 -0.215399 -0.91008
0.00222577 0.0630949 -0.0336691 0.254418 -0.165667 -0.949217
0.000337748 0.062546 -0.0341736 0.22733 -0.156571 -0.957739
-0.0723539 0.124632 -0.00836603 -0.195405 -0.0253683 -0.961104
-0.0759747 0.120215 -0.00731816 -0.34093 -0.14218 -0.918631
-0.0760386 0.127239 -0.00768455 -0.312261 0.0560337 -0.94217
-0.000351718 0.0353306 -0.0241332 0.106074 -0.59916 -0.785846
0.00496157 0.0353514 -0.0226813 0.135187 -0.667196 -0.615554
0.0082314 0.0692879 -0.0326558 0.343134 -0.188295 -0.919447
0.00653964 0.0684239 -0.0328563 0.315156 -0.17055 -0.93084
0.00249975 0.0660133 -0.0335479 0.250495 -0.135532 -0.955918
0.00240253 0.0652699 -0.0336493 0.249984 -0.139871 -0.955508
0.00563545 0.0783828 -0.0342159 0.338001 -0.0150586 -0.931408
0.00249174 0.0806476 -0.0347626 0.308671 0.0227765 -0.941345
0.00230193 0.0827257 -0.0345823 0.309613 0.0785308 -0.940457
0.00105924 0.0796942 -0.0352299 0.292531 -0.0146714 -0.947395
0.00284801 0.0865675 -0.0338718 0.308138 0.22286 -0.907956
0.00203836 0.0890769 -0.0335722 0.284751 0.335823 -0.868331
0.00234127 0.0894944 -0.0333212 0.283166 0.357619 -0.856488
-0.0470996 0.0388792 -0.0134869 -0.669529 0.373498 -0.597915
-0.0470631 0.0400469 -0.0120924 -0.595894 0.397166 -0.692304
-0.052248 0.114917 -0.0159541 -0.1027 0.451859 -0.870796
-0.0583407 0.112762 -0.0155043 -0.260804 0.422417 -0.85105
-0.0568151 0.114876 -0.014614 -0.245803 0.479951 -0.824417
-0.0577803 0.11433 -0.014673 -0.267657 0.468774 -0.825388
-0.0864613 0.11756 0.000335617 -0.692869 -0.324038 -0.614825
-0.0864955 0.119069 -0.000676007 -0.707844 -0.241337 -0.64021
-0.0853495 0.118569 -0.00147387 -0.722837 -0.142817 -0.662191
0.00322305 0.0515377 -0.0298896 0.217715 -0.344313 -0.911547
-0.00125819 0.0532475 -0.0313629 0.187131 -0.313864 -0.926779
-0.00160911 0.0547896 -0.0316946 0.178015 -0.278544 -0.942832
-0.0534399 0.0744793 -0.0177375 -0.108969 -0.453186 -0.88264
-0.0515181 0.0761469 -0.0184551 -0.0605155 -0.428672 -0.897222
-0.0495001 0.0766553 -0.0184657 -0.0478493 -0.41448 -0.903694
-0.0496752 0.0752194 -0.0176328 -0.0917476 -0.428648 -0.893231
-0.0480636 0.0423339 -0.0109948 -0.542394 0.413745 -0.723499
0.00245101 0.0846219 -0.0346349 0.323296 0.127245 -0.936652
-0.000922708 0.0835101 -0.0365582 0.316972 0.0554318 -0.944332
0.00444944 0.0451277 -0.0259314 0.138802 -0.445619 -0.883363
-0.000990652 0.0448103 -0.026786 0.158738 -0.417264 -0.89275
0.000797413 0.0466419 -0.0284197 0.198922 -0.432547 -0.877257
-0.00289846 0.05138 -0.0313359 0.141216 -0.316443 -0.933697
-0.00181349 0.0593861 -0.0334824 0.184548 -0.192978 -0.960727
-0.00204299 0.0568305 -0.0325459 0.181464 -0.243496 -0.950236
0.000666326 0.084552 -0.035677 0.322713 0.104424 -0.93866
0.00113794 0.0857347 -0.0350106 0.310765 0.167712 -0.927502
-0.065945 0.126126 -0.0090587 -0.0489816 0.159866 -0.967669
-0.0630648 0.127207 -0.00850422 0.051037 0.20914 -0.946034
-0.0631448 0.127808 -0.00842616 0.0688204 0.195975 -0.947723
-0.0606363 0.129734 -0.00779737 0.188026 0.220474 -0.930579
-0.0601285 0.126584 -0.00819461 0.0967527 0.29165 -0.920998
0.00487727 0.0744283 -0.0346959 0.321504 -0.117865 -0.938002
0.00474543 0.074867 -0.0348216 0.323761 -0.118364 -0.937439
0.00512583 0.0733007 -0.0343841 0.31452 -0.116326 -0.939843
-0.0651414 0.066766 -0.00670733 -0.392815 -0.727849 -0.551651
-0.0657943 0.0642912 -0.00410807 -0.409103 -0.774052 -0.474476
-0.0652583 0.0632718 -0.00351496 -0.396402 -0.792539 -0.457455
-0.0687108 0.0699336 -0.00838815 -0.473078 -0.689307 -0.546214
-0.0621335 0.0661452 -0.00800396 -0.320066 -0.738503 -0.588878
-0.0644744 0.0778865 -0.0176369 -0.326438 -0.339985 -0.865945
-0.0593002 0.0777587 -0.018891 -0.181192 -0.341335 -0.901195
-0.0634236 0.0788401 -0.0181855 -0.313254 -0.289217 -0.887445
-0.0557668 0.148223 -0.0014864 -0.0435318 -0.023987 -0.959183
0.00155198 0.0381945 -0.0246971 0.162757 -0.340612 -0.9175
-0.003896 0.0423397 -0.0254531 0.131549 -0.379137 -0.9134
-0.0015339 0.0639619 -0.0347964 0.202827 -0.121266 -0.971578
-0.00428536 0.0658587 -0.0351041 0.217783 -0.113257 -0.969185
-0.0543439 0.154287 -0.00261464 -0.519677 0.0805784 -0.8093
-0.0542846 0.15278 -0.00289509 -0.390375 0.0316506 -0.880431
-0.00395721 0.0438066 -0.0263507 0.133219 -0.414222 -0.896033
-0.00346291 0.0467675 -0.0296746 0.0881416 -0.559499 -0.806624
-0.00538759 0.0480412 -0.0302233 0.0406033 -0.501824 -0.839248
-0.00694435 0.0684669 -0.0357499 0.237696 -0.109558 -0.965087
-0.000406474 0.0700266 -0.0342548 0.212638 -0.094209 -0.972418
-0.00263945 0.0753683 -0.036016 0.249727 -0.103787 -0.962604
-0.0033859 0.0747643 -0.036096 0.250519 -0.105225 -0.962297
-0.0054724 0.101793 -0.0233895 0.0475846 0.567822 -0.817688
-0.00321721 0.1031 -0.0228891 0.0840486 0.442282 -0.870649
-0.00454042 0.107369 -0.0223865 0.0459911 0.45086 -0.878435
0.00234487 0.0360354 -0.0241956 0.145654 -0.486749 -0.849729
6.13817e-05 0.03768 -0.0248291 0.148815 -0.3026 -0.920788
-0.0425678 0.0477965 -0.0112189 -0.398212 0.440283 -0.801921
-0.0448441 0.0478044 -0.0105407 -0.379212 0.379277 -0.821254
-0.0434199 0.0483572 -0.0109867 -0.366098 0.369828 -0.824321
-0.00641655 0.0722334 -0.0364849 0.239409 -0.106976 -0.964935
-0.00425858 0.073895 -0.0361665 0.248641 -0.106205 -0.962687
-0.00603882 0.0736118 -0.0366956 0.240263 -0.105897 -0.96483
-0.00619832 0.0769543 -0.0374012 0.232877 -0.086227 -0.965862
-0.00821761 0.0831225 -0.0378193 0.173462 0.097128 -0.969453
-0.00608698 0.0826222 -0.0374921 0.21438 0.0634417 -0.96329
-0.00538799 0.0843546 -0.0376914 0.247468 0.0969661 -0.956571
-0.00388647 0.0814447 -0.0370944 0.254407 0.0121002 -0.957874
-0.00702191 0.0876045 -0.0371219 0.190892 0.255931 -0.936329
-0.00658554 0.0850886 -0.037848 0.223583 0.131008 -0.958175
-0.00744132 0.0868194 -0.037455 0.190217 0.220148 -0.946006
-0.0028962 0.0614375 -0.034388 0.19048 -0.167218 -0.965462
-0.00708484 0.0623379 -0.0352396 0.189127 -0.185676 -0.963375
-0.0028829 0.0613445 -0.0343513 0.190122 -0.168624 -0.965231
-0.00631332 0.0657942 -0.0354838 0.22502 -0.116755 -0.967095
-0.00807013 0.0654692 -0.0356965 0.218996 -0.136743 -0.965143
0.0153039 0.0346849 -0.00736798 0.153752 -0.92728 -0.0664069
0.0140839 0.0343139 -0.00457115 -0.0482293 -0.984896 -0.0230905
0.0173917 0.034622 -0.00201164 0.222373 -0.942426 -0.0692187
-0.0531384 0.14651 -0.00148493 0.123669 -0.282705 -0.920289
-0.0524871 0.14899 -0.00260539 -0.0615074 -0.231705 -0.911638
-0.00818747 0.054098 -0.0329166 0.0536325 -0.320511 -0.940642
-0.0124753 0.0554737 -0.0340861 -0.0141596 -0.358042 -0.930549
-0.00904401 0.0882158 -0.0371992 0.14255 0.304588 -0.923709
-0.00558832 0.0895345 -0.0362032 0.19985 0.343049 -0.907017
-0.00612409 0.0894566 -0.0363064 0.189486 0.34391 -0.906812
-0.0115361 0.088484 -0.0374243 0.0869623 0.342627 -0.908833
-0.00716198 0.108654 -0.0223597 0.00847617 0.483905 -0.871714
-0.0121782 0.104985 -0.0227857 -0.000868255 0.397981 -0.910488
-0.00938678 0.102543 -0.0232159 0.022747 0.484366 -0.862704
-0.00669307 0.106791 -0.0226482 0.018412 0.510918 -0.855193
-0.0662501 0.10859 -0.0132643 -0.485674 0.314468 -0.806063
-0.0634854 0.111044 -0.0140407 -0.419422 0.398053 -0.808083
-0.0682943 0.113706 -0.010251 -0.381695 0.241892 -0.878111
-0.0180687 0.034946 -0.0263774 0.203805 -0.635786 -0.630932
0.0150882 0.105672 -0.0187211 0.178051 0.424294 -0.882977
0.0178657 0.107779 -0.0172552 0.284313 0.454199 -0.839399
-0.0603275 0.11013 -0.0160513 -0.312659 0.355982 -0.861322
-0.0608989 0.10811 -0.016698 -0.325733 0.299402 -0.876674
-0.0581642 0.110026 -0.0168404 -0.238648 0.338089 -0.888873
-0.0590004 0.109681 -0.0166964 -0.266036 0.333463 -0.882485
-0.0577424 0.109544 -0.0171873 -0.222755 0.320755 -0.899356
-0.00793677 0.0451317 -0.0280517 0.032855 -0.522073 -0.841305
-0.00804064 0.0489737 -0.0304825 0.0369067 -0.440208 -0.880821
-0.0117193 0.0494975 -0.0309965 -0.0178929 -0.494534 -0.860283
-0.00844896 0.0492182 -0.0306167 0.0332769 -0.436965 -0.883545
-0.00983907 0.0480107 -0.0300838 0.00847836 -0.49667 -0.855701
-0.0114966 0.0472821 -0.0298207 -0.0194562 -0.548968 -0.832129
-0.00310436 0.0551538 -0.0320737 0.158485 -0.271803 -0.948295
-0.0106647 0.0570032 -0.0341597 0.0480413 -0.316587 -0.938332
-0.00681406 0.0564126 -0.0332058 0.11131 -0.287294 -0.94468
-0.00582459 0.0563771 -0.0329965 0.12989 -0.277622 -0.946733
-0.0632527 0.102571 -0.018134 -0.390683 0.154534 -0.907069
-0.0610486 0.0995837 -0.0185562 -0.354611 0.157089 -0.918686
-0.0631478 0.102156 -0.0181638 -0.390631 0.152421 -0.907662
-0.0665859 0.0709035 -0.0113654 -0.407995 -0.679397 -0.595493
-0.0638957 0.0687467 -0.0103236 -0.347515 -0.704632 -0.605114
-0.0603614 0.069708 -0.0140123 -0.2149 -0.669396 -0.702521
-0.00602941 0.0413672 -0.0257746 0.129618 -0.267884 -0.941246
-0.00800456 0.039618 -0.0260619 0.138941 -0.164399 -0.964871
-0.00941281 0.0777435 -0.0381211 0.191616 -0.0474162 -0.972464
-0.0120058 0.0781662 -0.0384536 0.132263 -0.031973 -0.9826
-0.0661655 0.0354161 0.0349901 -0.688857 -0.554245 0.107069
-0.0116718 0.064953 -0.0365557 0.125624 -0.195109 -0.965541
-0.0120677 0.0671363 -0.0370556 0.110701 -0.186511 -0.966973
-0.00975738 0.0726068 -0.0376649 0.177663 -0.138825 -0.967618
-0.0117951 0.0691151 -0.0374541 0.117464 -0.179877 -0.967395
-0.0394619 0.0904778 -0.0230513 -0.22116 -0.00035157 -0.964041
-0.0408025 0.0914397 -0.0227565 -0.174566 0.00586601 -0.973382
-0.0374232 0.041621 -0.028052 -0.423182 0.467481 -0.743781
-0.0412288 0.0368818 -0.027532 -0.580678 -0.0247569 -0.676625
-0.0456615 0.0848978 -0.0213794 -0.0952255 -0.223452 -0.9644
-0.0487147 0.0855872 -0.0215801 -0.0804579 -0.172864 -0.974426
-0.052173 0.0879205 -0.0219324 -0.0471133 -0.0661816 -0.99468
-0.0483486 0.0837503 -0.0214148 -0.101006 -0.234731 -0.96317
-0.0499554 0.0588953 -0.0104503 -0.420749 -0.230719 -0.848883
-0.049017 0.0645107 -0.0125354 -0.328955 -0.38512 -0.853173
-0.0478431 0.064225 -0.0131394 -0.320417 -0.343133 -0.876693
-0.051541 0.0606424 -0.0100076 -0.41249 -0.331218 -0.813732
-0.01064 0.0360961 -0.0254364 0.151454 -0.471562 -0.850487
-0.00812851 0.0426794 -0.0260767 0.126177 -0.363001 -0.919934
-0.0112168 0.042762 -0.0265562 0.117054 -0.33073 -0.931586
-0.0155633 0.0422632 -0.0271994 0.118311 -0.296748 -0.941479
-0.01287 0.0436316 -0.0268553 0.0932513 -0.298104 -0.946554
-0.014748 0.0377594 -0.0268426 0.223456 -0.388623 -0.890991
-0.00832617 0.0434066 -0.0261859 0.108296 -0.352332 -0.925988
-0.0137806 0.043997 -0.0270852 0.0814565 -0.290512 -0.949607
-0.0133837 0.0812336 -0.0389618 0.120069 0.0156109 -0.986389
-0.0501925 0.0977987 -0.0222763 -0.140452 0.164746 -0.973637
-0.0457339 0.0988291 -0.0218582 -0.100958 0.177467 -0.975329
-0.0449697 0.0982821 -0.0218946 -0.0894189 0.160539 -0.979309
-0.0413735 0.0580042 -0.0119125 -0.0526464 -0.232106 -0.963876
-0.0379054 0.0578908 -0.0112916 -0.0796476 -0.227704 -0.965692
-0.0420007 0.0599682 -0.0125495 -0.0155577 -0.283716 -0.951746
-0.0146666 0.176029 -0.0264991 -0.236368 -0.175992 -0.842893
-0.0167462 0.175796 -0.0250737 -0.472277 -0.218888 -0.816324
-0.0138944 0.0591397 -0.0354711 0.00205904 -0.318809 -0.941572
-0.014935 0.06288 -0.0368436 0.00410817 -0.276826 -0.958167
-0.0144132 0.0854117 -0.0386942 0.0273331 0.204179 -0.965009
-0.0144286 0.0816331 -0.0392861 0.11362 -0.000702479 -0.987965
-0.0523734 0.107026 -0.0185188 -0.136793 0.310018 -0.936562
-0.0509347 0.108131 -0.0182375 -0.117085 0.330405 -0.931991
-0.052682 0.0703938 -0.0146167 -0.21221 -0.526541 -0.812457
-0.0532659 0.0674056 -0.0121422 -0.298226 -0.530127 -0.78469
-0.0528877 0.0693988 -0.0137942 -0.240775 -0.527958 -0.80308
-0.0530374 0.0664062 -0.0112597 -0.32988 -0.522997 -0.780305
-0.0671816 0.0354007 -0.00675231 -0.552301 -0.10522 -0.722872
-0.0329932 0.0357459 0.030656 0.362072 -0.896138 0.147875
-0.0336795 0.0349572 0.030708 0.311124 -0.913445 0.126886
-0.0360428 0.0349837 0.0446747 -0.282386 -0.854632 0.314221
-0.0154173 0.0448579 -0.0279697 0.0460825 -0.325267 -0.9317
-0.0165303 0.0480594 -0.0297104 -0.100763 -0.362465 -0.903418
-0.0126338 0.0700161 -0.0378218 0.0956256 -0.182439 -0.970008
-0.014545 0.0722484 -0.0382972 0.0626994 -0.144884 -0.983231
-0.0143436 0.0719632 -0.0382416 0.0659315 -0.149596 -0.981705
-0.0132952 0.173562 -0.0264128 -0.179784 -0.397529 -0.844757
-0.0133307 0.171226 -0.0249778 -0.120366 -0.496802 -0.826238
-0.0158071 0.171922 -0.0235076 -0.317592 -0.416745 -0.799135
-0.0171218 0.174283 -0.0239272 -0.475117 -0.289015 -0.800136
-0.0670761 0.160074 -0.0563028 -0.500131 -0.406619 -0.700774
-0.0135815 0.0500563 -0.0312392 -0.0857532 -0.491092 -0.855501
-0.0139711 0.0526362 -0.0326793 -0.0726583 -0.438903 -0.886184
-0.0598903 0.0755376 -0.0179989 -0.167507 -0.452862 -0.8612
-0.0599065 0.0758639 -0.0181693 -0.166551 -0.440596 -0.869036
-0.0611993 0.0716645 -0.0155496 -0.225041 -0.596782 -0.755265
-0.0569522 0.0860134 -0.0214149 -0.264814 -0.0412218 -0.952595
-0.0570428 0.0856787 -0.021404 -0.264057 -0.051823 -0.951659
0.00542316 0.0345802 0.00178278 -0.252394 -0.92793 -0.137984
-0.0172852 0.179502 -0.0249656 -0.429368 0.13827 -0.792057
-0.0165309 0.180334 -0.0256161 -0.362432 0.21624 -0.801884
-0.0184036 0.177053 -0.0239514 -0.565005 -0.0962333 -0.784548
-0.0183451 0.179337 -0.0240928 -0.493322 0.127029 -0.772412
-0.0181428 0.0709457 -0.0383599 -0.104059 -0.166761 -0.964186
-0.0160539 0.0675574 -0.0379029 -0.0146156 -0.215137 -0.968889
-0.0154169 0.0727579 -0.0383988 0.0246722 -0.137915 -0.980223
-0.0187372 0.0801761 -0.0390831 -0.107827 0.00666981 -0.979683
-0.0185432 0.0809359 -0.0392172 -0.0872035 0.0108485 -0.98047
-0.0173004 0.185002 -0.0241677 -0.507564 0.611746 -0.582605
-0.0178259 0.0366236 -0.0273911 0.248975 -0.368491 -0.875511
-0.0181704 0.0406895 -0.0278412 0.179307 -0.18093 -0.94349
-0.0179309 0.0410332 -0.0277739 0.16735 -0.194732 -0.944861
-0.019408 0.0618217 -0.0353774 -0.328437 -0.349916 -0.856516
-0.020053 0.0620875 -0.0353053 -0.371335 -0.354039 -0.844216
-0.0173753 0.0835669 -0.0390603 -0.0445532 0.133552 -0.968461
-0.0162186 0.0832029 -0.0391428 0.0205025 0.101558 -0.973761
-0.0610853 0.0373681 0.0204747 -0.796444 0.350934 0.0447294
-0.0178733 0.0477595 -0.0292629 -0.118187 -0.277891 -0.925253
-0.0173568 0.0472732 -0.0290904 -0.082273 -0.29365 -0.927589
-0.0192711 0.0586306 -0.0340981 -0.347418 -0.381682 -0.846692
-0.0204087 0.0621853 -0.0352395 -0.394425 -0.356102 -0.837794
-0.0700793 0.0762212 -0.0141543 -0.482419 -0.450543 -0.736699
-0.0698424 0.074133 -0.0125411 -0.486955 -0.566993 -0.643331
-0.0558913 0.0977055 -0.0212028 -0.315547 0.15625 -0.926621
-0.0608947 0.0390465 0.0219007 -0.757349 0.470226 -0.324039
-0.01922 0.170266 -0.0207382 -0.355288 -0.394756 -0.805245
-0.0201693 0.171104 -0.0208408 -0.382511 -0.330481 -0.823843
-0.0210837 0.172006 -0.0209923 -0.411937 -0.264671 -0.842199
-0.020716 0.0679025 -0.0372449 -0.300586 -0.241367 -0.902275
-0.0212172 0.0637717 -0.0356182 -0.42631 -0.338949 -0.834896
-0.0213623 0.0673931 -0.036886 -0.357517 -0.259427 -0.882162
-0.0199479 0.07469 -0.0388109 -0.180005 -0.109027 -0.961846
-0.0208573 0.0773031 -0.0389473 -0.218228 -0.0455807 -0.964431
-0.0722966 0.113961 -0.00783457 -0.404809 0.126076 -0.899644
-0.0735053 0.106029 -0.0106505 -0.457286 0.20841 -0.85668
-0.0744179 0.103163 -0.0113357 -0.50125 0.218823 -0.830087
-0.0704471 0.0918977 -0.0162118 -0.423731 0.104675 -0.891789
-0.0712046 0.0881926 -0.0164584 -0.428715 0.0330062 -0.89281
-0.0700358 0.0912328 -0.0165034 -0.406418 0.0914639 -0.898885
-0.0535002 0.101239 -0.0209012 -0.174265 0.22963 -0.95562
-0.0513045 0.103549 -0.0201425 -0.143512 0.269868 -0.946104
-0.051295 0.106262 -0.0187974 -0.137224 0.308082 -0.935954
-0.053539 0.102627 -0.0202051 -0.171554 0.249034 -0.950442
-0.0646311 0.0381801 0.0266102 -0.872038 0.20814 -0.368685
-0.0219335 0.037754 -0.0285638 0.212913 -0.294353 -0.875166
-0.0214798 0.0389362 -0.0286244 0.210412 -0.187267 -0.906069
-0.020548 0.0451872 -0.0278157 -0.064773 -0.0446819 -0.976781
-0.0580651 0.0395931 -0.00895952 -0.341701 0.223158 -0.810004
-0.0564107 0.0390209 -0.00975112 -0.293164 0.117957 -0.843314
-0.0547819 0.0406983 -0.00986302 -0.297481 0.346216 -0.859246
-0.0628075 0.0363253 -0.00815233 -0.366709 -0.202135 -0.751455
-0.0612901 0.0397069 -0.00771475 -0.413028 0.279897 -0.752608
0.00102857 0.0347482 0.0409822 -0.0278627 -0.984368 0.0215149
0.0010838 0.0347388 0.041282 -0.0202564 -0.983341 0.0412479
-0.0014886 0.0347604 0.0419966 0.00556603 -0.987418 0.0581964
-0.0199679 0.177564 -0.0227809 -0.59064 -0.0109336 -0.766481
-0.0227641 0.177708 -0.0208 -0.583522 0.112321 -0.763892
-0.0630021 0.0370006 0.0234197 -0.832261 0.114346 -0.408713
-0.0662933 0.104258 -0.0151954 -0.467043 0.297423 -0.826575
-0.0230835 0.0515297 -0.0286021 -0.431701 -0.181433 -0.819787
-0.0193866 0.0516586 -0.0306704 -0.325943 -0.338751 -0.848292
-0.0237536 0.0546556 -0.0292355 -0.581257 -0.296987 -0.717355
-0.0198968 0.0581225 -0.0335471 -0.386267 -0.380296 -0.8303
-0.0217142 0.0571835 -0.0318544 -0.483043 -0.347812 -0.775577
-0.020945 0.0539176 -0.0306028 -0.453271 -0.364614 -0.775721
-0.0205677 0.0539402 -0.0308617 -0.433706 -0.371502 -0.785999
-0.020077 0.0585414 -0.0336543 -0.394299 -0.376648 -0.828091
-0.0750297 0.0939275 -0.0136089 -0.561392 0.115958 -0.809164
-0.0742396 0.0917417 -0.014387 -0.532269 0.0838403 -0.832047
-0.0707287 0.0940707 -0.0157048 -0.440696 0.142043 -0.878907
-0.0745776 0.0913972 -0.0142814 -0.540708 0.0762298 -0.828082
-0.0577791 0.132019 -0.00649066 0.316823 0.266038 -0.889779
-0.0539527 0.13174 -0.0048332 0.454916 0.355373 -0.791612
-0.00836057 0.0384629 0.00812247 -0.142854 -0.973713 -0.0471751
-0.0127074 0.0384469 0.00477818 -0.0224357 -0.992986 -0.0257134
-0.00951576 0.0383859 0.0119315 -0.083857 -0.983498 -0.0245286
-0.0100362 0.0384609 0.00656036 -0.0980046 -0.980871 -0.0398867
-0.00959541 0.0383626 0.0133558 -0.0731143 -0.985326 -0.0187777
-0.00674429 0.0384786 0.008734 -0.19126 -0.965919 -0.0574344
-0.0141094 0.0384613 0.00244064 0.0091698 -0.997952 -0.0233314
-0.026556 0.0495168 -0.0256569 -0.529663 0.234855 -0.764279
-0.0238558 0.0507849 -0.0279248 -0.427074 -0.108644 -0.832606
-0.0261602 0.0615553 -0.0303657 -0.689728 -0.303934 -0.633803
-0.0245753 0.0640769 -0.0327327 -0.59988 -0.331901 -0.690944
-0.0231806 0.064094 -0.0339863 -0.531229 -0.342709 -0.746318
-0.0221393 0.0618106 -0.0340574 -0.490827 -0.336384 -0.792975
-0.0261387 0.0643153 -0.0314244 -0.675621 -0.321401 -0.628273
-0.0229498 0.0720482 -0.0378445 -0.360548 -0.177855 -0.900162
-0.0225843 0.0658867 -0.0356281 -0.466732 -0.313878 -0.817596
-0.0220236 0.068956 -0.0371917 -0.368128 -0.232967 -0.886538
-0.00431196 0.100617 -0.0234686 0.0700059 0.564316 -0.812817
-0.00989236 0.176418 -0.0292391 0.4146 -0.0416176 -0.790424
-0.066318 0.177536 -0.0600722 -0.357166 0.244662 -0.813888
-0.0259065 0.17043 -0.0191122 -0.374952 -0.189705 -0.899373
-0.0217471 0.168413 -0.0192841 -0.303756 -0.399321 -0.829146
-0.0238738 0.170207 -0.0194729 -0.362029 -0.258907 -0.87034
-0.0248999 0.16996 -0.0191603 -0.358243 -0.23964 -0.882505
-0.0643524 0.12287 -0.00912611 -0.10798 0.254722 -0.944588
-0.0687719 0.126727 -0.00923287 -0.0858684 0.0776137 -0.988964
-0.0664268 0.124203 -0.00916426 -0.108424 0.178653 -0.962715
-0.0231633 0.0434898 -0.0286005 0.0255404 0.086688 -0.973853
-0.0249522 0.0420333 -0.0291838 0.110553 0.159425 -0.967874
-0.0273154 0.0454318 -0.0275812 -0.218448 0.248512 -0.886238
-0.026346 0.045143 -0.0279768 -0.166066 0.188566 -0.923169
-0.0223455 0.075125 -0.0386983 -0.294832 -0.100025 -0.941555
-0.0226669 0.0750949 -0.0385039 -0.314448 -0.106323 -0.929699
-0.0242546 0.0750081 -0.0375406 -0.411393 -0.136155 -0.871005
-0.024748 0.0832367 -0.0374562 -0.428108 0.167249 -0.848718
-0.0256939 0.0837016 -0.0370402 -0.480553 0.19504 -0.817532
-0.0250221 0.0893489 -0.0350878 -0.471359 0.493074 -0.684146
-0.0249735 0.0897849 -0.0349132 -0.470334 0.516649 -0.672383
-0.0199002 0.0881408 -0.0374138 -0.205537 0.398568 -0.853324
-0.0215225 0.0891788 -0.036389 -0.291926 0.464345 -0.78016
-0.0726508 0.146875 -0.0203438 -0.588292 -0.701581 -0.186217
-0.0749241 0.14896 -0.0179464 -0.842199 -0.336583 -0.12115
-0.0643412 0.149055 -0.0277922 0.681378 -0.684308 -0.219442
-0.0628339 0.152904 -0.0309417 0.856542 -0.428484 -0.178719
-0.0631863 0.152486 -0.0311049 0.821246 -0.46769 -0.18507
-0.0648065 0.149025 -0.0289817 0.640887 -0.713779 -0.224397
-0.0570009 0.048015 0.0360657 -0.47333 0.834944 0.201139
-0.0561069 0.0482622 0.0322107 -0.598036 0.782094 -0.00342393
-0.0255638 0.0806991 -0.0369829 -0.479147 0.0613021 -0.824132
-0.024912 0.0803336 -0.0372694 -0.443046 0.0401216 -0.845749
-0.026867 0.0765461 -0.0360814 -0.565607 -0.109445 -0.776329
-0.0255562 0.0830368 -0.0371439 -0.47188 0.16324 -0.82658
-0.0261987 0.177337 -0.0184213 -0.594502 0.247493 -0.738285
-0.0253298 0.176696 -0.0190743 -0.568604 0.167089 -0.765052
0.0246472 0.0604609 -0.024024 0.584469 -0.113827 -0.801578
0.0237658 0.0618328 -0.0242458 0.546527 -0.065564 -0.828703
-0.0798786 0.136362 -0.00395058 -0.611775 0.161007 -0.758705
-0.0807161 0.136816 -0.0028231 -0.658459 0.167761 -0.715748
0.0127143 0.0347983 0.036796 0.00563552 -0.978325 0.0785353
0.0126811 0.0347305 0.0399247 0.12282 -0.977431 0.117379
0.021418 0.035389 0.0171299 -0.183456 -0.942716 0.0335616
0.0223568 0.0358825 0.0138338 -0.383605 -0.892389 0.0236373
0.0254101 0.0353301 0.00231538 0.236165 -0.920294 -0.275779
0.0290012 0.0365842 0.00166774 0.281982 -0.862089 -0.377188
0.0290548 0.0370485 0.000642524 0.298476 -0.831797 -0.432028
0.0326232 0.0381837 0.00026243 0.2856 -0.804718 -0.478924
-0.0733161 0.148932 -0.0308327 -0.631218 -0.630076 -0.169136
-0.0735785 0.149897 -0.0337993 -0.782171 -0.477633 -0.212522
-0.0172085 0.035453 0.0512029 0.162737 -0.74895 0.566426
0.0131055 0.0356487 0.0438938 0.227274 -0.661603 0.675951
0.00819756 0.0349309 0.0427269 0.10129 -0.880238 0.322544
-0.0248186 0.0389469 0.0371243 0.0463471 -0.99352 0.102286
-0.0245747 0.0388567 0.0359361 0.0464598 -0.99399 0.0966598
-0.0216509 0.0389425 0.0359377 0.0389208 -0.994848 0.0902685
-0.0215935 0.0388005 0.0341822 0.0398686 -0.995453 0.0826185
-0.0177986 0.0388269 0.0331461 0.0307311 -0.996914 0.0698734
0.013207 0.0348685 0.0279963 -0.146165 -0.984047 0.0195829
0.0141138 0.0348212 0.0253603 -0.0909425 -0.988902 0.0278013
0.0161506 0.0347799 0.0221051 -0.018631 -0.994992 0.0380777
0.011952 0.0347375 0.0235733 -0.0659779 -0.991903 0.0329859
0.0158938 0.0347488 0.0210229 0.00121417 -0.99692 0.0413641
0.0124891 0.0348962 0.029687 -0.182195 -0.980919 0.0142927
0.0166215 0.0350613 0.0330787 0.0908374 -0.962056 0.123514
0.0159142 0.0350005 0.0362325 0.124857 -0.959377 0.140594
0.0181147 0.0351568 0.0295995 0.100673 -0.962456 0.122297
0.0158741 0.035011 0.0350637 0.0921688 -0.961453 0.126793
0.0134226 0.0353689 0.0425481 0.20266 -0.761343 0.498088
0.0102848 0.034631 0.0402286 0.0536633 -0.970181 0.112592
0.0466741 0.0421339 0.01491 0.510944 -0.842687 0.0885109
0.0490817 0.0432758 0.0123824 0.567423 -0.815219 0.000210471
0.0443762 0.0419771 0.0204632 0.44847 -0.840103 0.271011
0.0433806 0.0408735 0.0183158 0.432921 -0.869476 0.207387
0.044563 0.0424081 0.0216171 0.449336 -0.827679 0.306437
-0.0684799 0.149005 -0.0367555 0.271913 -0.924439 -0.244621
-0.0685677 0.147683 -0.0304032 0.144125 -0.95699 -0.218831
-0.00639152 0.0385004 0.0218307 -0.0792273 -0.974899 0.11049
-0.00234431 0.0386046 0.0237067 -0.165362 -0.952518 0.194425
-0.0102573 0.0384167 0.0203573 0.00575903 -0.996906 0.0288546
-0.00564964 0.0389584 0.0309913 -0.0198405 -0.988239 0.0853381
-0.00691682 0.03845 0.0208467 -0.0743617 -0.976339 0.103
-0.00592835 0.0391517 0.0348891 0.0204266 -0.997747 0.0610431
-0.0052471 0.0387738 0.027261 -0.0618051 -0.978264 0.111695
-0.00431287 0.0389651 0.0310533 -0.053045 -0.979743 0.115625
-0.0722962 0.147278 -0.0246205 -0.578938 -0.747071 -0.181331
-0.0721104 0.147451 -0.0274183 -0.45392 -0.859002 -0.178899
-0.0461799 0.0349498 -0.0194964 -0.741402 -0.357608 -0.3917
0.025524 0.0348326 0.00508099 0.135159 -0.967231 -0.157996
0.0268011 0.0350785 0.00409871 0.188169 -0.958417 -0.19853
0.0291436 0.0352923 0.00579206 0.179906 -0.956798 -0.182506
-0.0718309 0.147327 -0.0271676 -0.414152 -0.879465 -0.182217
-0.0323367 0.0369053 0.0500711 -0.481892 -0.436012 0.622444
0.0388245 0.0396377 0.0203867 0.35612 -0.879218 0.277478
0.0412482 0.0406418 0.0205637 0.390023 -0.86422 0.281578
0.0397369 0.0399579 0.0202581 0.369453 -0.875347 0.272902
0.0351505 0.0379077 0.019416 0.306781 -0.90834 0.249246
0.0367814 0.0381548 0.018088 0.333828 -0.911408 0.206635
0.00102106 0.034688 -0.0163359 -0.151948 -0.77956 0.585588
0.00861069 0.0349631 0.036058 -0.185829 -0.958728 -0.131644
-0.0339328 0.034679 0.0417464 -0.0672668 -0.990688 0.0886766
-0.0345281 0.0346208 0.0376936 0.0545775 -0.988685 0.0772778
-0.0337684 0.0346584 0.0401116 -0.0115297 -0.990623 0.0803003
0.00761223 0.0356785 -0.00580547 -0.345229 -0.914113 -0.132807
0.00673612 0.0378214 -0.00689407 -0.449644 -0.871769 -0.151879
-0.00322091 0.0384324 0.020387 -0.196989 -0.952167 0.161019
-0.00948213 0.0383244 0.0184632 -0.0302737 -0.988169 0.0549274
-0.00986365 0.0382803 0.0176485 -0.0415752 -0.989328 0.0342177
-0.00651371 0.0350586 0.0470637 0.117227 -0.828143 0.409934
-0.00052705 0.0360017 0.0170391 -0.368966 -0.914303 0.149538
-0.00133609 0.0368534 0.0172177 -0.344843 -0.92564 0.13402
-0.00131487 0.0389158 -0.00185647 -0.193071 -0.965449 -0.033533
-0.00174149 0.0386826 0.00263719 -0.29597 -0.935922 -0.115762
-0.0347487 0.0392409 0.0479898 -0.677325 -0.0381512 0.626839
-0.0155792 0.0384174 0.00253033 0.0324498 -0.998084 -0.017997
-0.0180787 0.0382774 0.00653569 0.0582555 -0.995512 -0.00476192
-0.0187545 0.0382387 0.00727609 0.069442 -0.994201 -0.000608382
-0.0240213 0.0379396 0.014163 0.142905 -0.985992 0.0298883
-0.0883823 0.11206 0.0200342 -0.880585 -0.428442 0.173522
-0.0906207 0.114502 0.0216672 -0.866864 -0.476561 0.0888392
-0.0906445 0.113931 0.0200184 -0.858001 -0.491565 0.0808495
-0.0905815 0.112706 0.0167469 -0.841511 -0.518261 0.069514
-0.0295978 0.0360513 0.0208246 0.531483 -0.826989 0.17765
-0.0132771 0.0360471 0.050579 0.245078 -0.590559 0.750352
-0.0103687 0.0385723 0.0498613 0.268892 -0.244239 0.849197
0.00725794 0.0352259 0.044287 0.145006 -0.783363 0.500626
-0.0616583 0.165781 -0.0600433 0.62456 -0.351868 -0.657834
-0.0614828 0.168586 -0.0575196 0.80664 -0.0955344 -0.32186
0.0233191 0.034604 0.00457303 0.100608 -0.977613 -0.121348
0.0232666 0.0353891 0.011021 -0.295934 -0.922705 0.0153699
0.0235327 0.0348224 0.0177969 0.0342981 -0.990206 0.0634092
0.023751 0.034601 0.0158838 -0.0217009 -0.99577 0.0393725
0.0277167 0.0353176 0.0178687 0.16033 -0.964612 0.148316
0.000567952 0.0351605 -0.0159433 -0.171091 -0.774273 0.602411
0.0005903 0.0365249 -0.0150037 -0.208255 -0.808869 0.537868
0.0246671 0.03522 0.0201988 0.145553 -0.972463 0.124859
0.0219843 0.0349914 0.0208167 0.0864679 -0.98665 0.0800504
0.0246887 0.0352876 0.0210893 0.174473 -0.966596 0.141976
0.0118848 0.0348622 0.0285319 -0.171195 -0.97924 0.0308021
0.0162489 0.0357518 0.0417382 0.339779 -0.747328 0.474588
0.00794659 0.0346433 0.0393179 -0.0412955 -0.985807 -0.00353094
-0.00680038 0.0390903 0.0340429 0.0214956 -0.997939 0.0587817
-0.0161177 0.0384495 0.0255391 0.0278639 -0.998423 0.041831
-0.00767926 0.0390026 0.0325626 0.0215476 -0.998076 0.0550403
-0.0136015 0.0387979 0.0321883 0.029666 -0.99771 0.0601588
-0.0123162 0.0388012 0.0312494 0.0270786 -0.997926 0.0558253
-0.0101107 0.0385311 0.0227892 0.0170974 -0.999213 0.0267534
-0.012908 0.038439 0.0227262 0.0210239 -0.999025 0.0295303
-0.0113229 0.0387841 0.030035 0.0246837 -0.998158 0.0509325
-0.00886354 0.0389686 0.0326611 0.0233113 -0.997979 0.0566116
-0.0863739 0.112912 0.0273587 -0.736255 -0.637768 0.125621
-0.0889825 0.115415 0.0281755 -0.802949 -0.55984 0.0926437
-0.087639 0.113564 0.0261376 -0.792761 -0.561081 0.128712
-0.0873209 0.111205 0.0201315 -0.872867 -0.428537 0.202434
-0.0886055 0.114104 0.025328 -0.834087 -0.505461 0.129618
-0.0870806 0.113641 0.0291465 -0.727104 -0.654289 0.108933
-0.0887342 0.112665 0.0352909 -0.650386 -0.739844 0.119855
-0.0901912 0.115951 0.029522 -0.811964 -0.546937 0.0868142
-0.0902874 0.115871 0.0299437 -0.806185 -0.553454 0.0876945
-0.000427377 0.0357888 0.0104252 -0.350469 -0.925846 -0.0608734
0.000165775 0.0352436 0.00914796 -0.359738 -0.921032 -0.0895841
0.000486924 0.0349895 0.0134978 -0.383156 -0.908002 0.0585906
-0.00552372 0.0347929 0.0463242 0.0807923 -0.910717 0.309151
0.00630187 0.0345237 0.000518255 -0.265342 -0.923855 -0.16039
0.00791837 0.0346003 0.00136358 -0.174977 -0.943377 -0.111479
0.0127081 0.0346692 0.00299942 0.037082 -0.989763 -0.00706795
-0.0160938 0.038595 -0.00445541 0.00645726 -0.984805 0.044303
-0.0165277 0.0386202 -0.00572755 0.00403307 -0.982217 0.0564486
-0.0157686 0.0386996 -0.00807776 -0.00674992 -0.967886 0.119371
-0.0171677 0.038532 -0.00295778 0.0157125 -0.997548 -0.0111019
-0.0164309 0.0386151 -0.00546208 0.00451365 -0.982719 0.0540765
-0.0161795 0.0385009 -0.00103244 0.0180423 -0.999437 -0.0208846
-0.0142763 0.0386697 -0.00580537 -0.00531759 -0.968119 0.116285
-0.0171273 0.0385888 -0.00503315 0.00873549 -0.988748 0.0281195
0.00264785 0.0377611 -0.00140162 -0.409025 -0.880942 -0.230485
0.00423512 0.0368061 -0.00233439 -0.413207 -0.88229 -0.215036
0.0172795 0.0350485 -0.0128827 0.480678 -0.841363 -0.169698
0.017108 0.0350258 -0.0126409 0.458112 -0.846612 -0.163033
0.0136431 0.0342883 -0.00230168 -0.0705469 -0.981189 -0.047381
0.0125896 0.0342883 -0.00508508 -0.11922 -0.980026 -0.0372044
0.0135991 0.0342937 -0.00036851 -0.0647479 -0.975131 -0.069154
0.01305 0.0342899 -0.00328231 -0.0957101 -0.978814 -0.048004
0.0127026 0.0342974 -0.00132533 -0.100772 -0.970002 -0.0757851
0.0205342 0.0356581 0.0313053 0.333253 -0.877893 0.248888
0.0198412 0.0353189 0.0312256 0.26445 -0.934537 0.195329
0.0183595 0.0354593 0.0365884 0.320658 -0.886909 0.246477
0.0091459 0.0378905 0.032321 -0.569045 -0.729803 -0.155042
-0.0903953 0.116682 0.0428491 -0.703926 -0.432349 0.426481
-0.0894773 0.113852 0.0408129 -0.619371 -0.663845 0.293746
0.0227651 0.0345699 0.00437635 0.0909279 -0.981401 -0.105526
-0.0189834 0.0348112 0.0496667 0.0584177 -0.96383 0.247372
-0.0196742 0.0347801 0.0483231 0.0459893 -0.971086 0.210685
-0.0227693 0.0347642 0.0466042 0.0277531 -0.978755 0.16551
-0.0196782 0.0346806 0.0448582 0.0158168 -0.991095 0.114664
-0.0222474 0.0346963 0.0444383 0.00944628 -0.991645 0.10507
-0.00470396 0.0384093 0.0118817 -0.253903 -0.955691 -0.0166472
-0.00478392 0.0384439 0.0108237 -0.251776 -0.956076 -0.0366144
-0.0064385 0.0383968 0.0125649 -0.186962 -0.966705 -0.0225064
-0.00554151 0.0383227 0.0147123 -0.219379 -0.96129 0.0257328
0.00315673 0.0383247 -0.0133564 -0.272174 -0.830177 0.481552
-0.00313325 0.0382116 -0.0144237 -0.151376 -0.858291 0.475474
0.0311371 0.0373434 0.0216659 0.286059 -0.872962 0.348816
0.0330698 0.0380326 0.0217906 0.299917 -0.872597 0.34335
0.0349473 0.0400623 0.0253225 0.346855 -0.803622 0.471973
0.037996 0.0403052 0.0234016 0.347933 -0.845645 0.380204
0.035728 0.039234 0.0225975 0.325214 -0.85931 0.360784
-0.0105315 0.0346815 0.0459859 0.0515975 -0.966263 0.202382
-0.0140001 0.0347946 0.0461736 0.0571896 -0.941596 0.213933
-0.0800754 0.0724137 0.00451544 -0.740607 -0.634473 -0.191088
-0.0786669 0.0719433 0.00256578 -0.710954 -0.64799 -0.236748
-0.0834568 0.110548 0.0351486 -0.47206 -0.859979 0.111536
-0.0886326 0.111951 0.0380398 -0.58633 -0.795252 0.121845
-0.0861957 0.111678 0.0336997 -0.602326 -0.780957 0.122877
-0.0838005 0.110451 0.0368044 -0.445347 -0.877683 0.109328
-0.0188732 0.034833 0.0497816 0.0629003 -0.956683 0.259704
-0.00453523 0.0390685 -0.0132739 -0.0762454 -0.91608 0.341478
-0.00455708 0.0389643 -0.0138033 -0.102435 -0.891915 0.408974
-0.0841151 0.111193 0.0285352 -0.683507 -0.664139 0.175058
-0.0835949 0.110207 0.0281433 -0.734831 -0.511961 0.263952
-0.0825399 0.110145 0.0373394 -0.399999 -0.89387 0.134681
-0.0809012 0.110045 0.0394131 -0.336554 -0.891715 0.23803
-0.0866738 0.111601 0.0391954 -0.517978 -0.809939 0.18614
-0.0761353 0.0699059 0.00182384 -0.644374 -0.717224 -0.261728
-0.0773812 0.070175 0.0040732 -0.67091 -0.703509 -0.220463
-0.0837181 0.111227 0.0293391 -0.655489 -0.712657 0.168396
-0.082708 0.110593 0.032385 -0.523567 -0.815366 0.129984
-0.0850921 0.11679 0.0488665 -0.310496 -0.388398 0.864044
-0.0854397 0.113717 0.0441567 -0.408192 -0.634284 0.511353
-0.0858866 0.114108 0.0443096 -0.414988 -0.60623 0.52939
-0.0848941 0.114246 0.045405 -0.371644 -0.58855 0.598612
-0.0855007 0.114087 0.0446291 -0.40023 -0.605288 0.5482
0.000991828 0.0353579 0.045675 0.135507 -0.697329 0.591696
-0.00261689 0.038912 -0.0028132 -0.173876 -0.957934 0.0458662
-0.00504989 0.0387652 -0.00193106 -0.205097 -0.925165 0.130256
-0.00236264 0.0389487 -0.00356995 -0.161903 -0.961441 0.0481908
-0.00325339 0.0386621 0.00397572 -0.268001 -0.948537 -0.0420226
-0.00283875 0.0387908 0.00061032 -0.220541 -0.954525 -0.00249494
